-0.692293090820313, -0.455168609619141, 0.335361602783203, 0.206221833825111, 0.362785339355469, -0.908768057823181
-0.72362744140625, -0.396525634765625, 0.305047454833984, 0.698974847793579, -0.600100815296173, -0.388990014791489
-0.635644470214844, -0.393251342773437, 0.224411743164063, 0.426468431949615, -0.232426881790161, 0.8741295337677
-0.574150634765625, -0.308076995849609, 0.13383757019043, 0.826748311519623, 0.222635835409164, 0.516643464565277
-0.428010803222656, -0.257484191894531, 0.034972412109375, 0.219615206122398, 0.0540022887289524, 0.974090814590454
-0.5467841796875, -0.16639599609375, 0.0951109848022461, 0.574395656585693, -0.353607058525085, 0.738262712955475
-0.496354736328125, -0.0481149940490723, 0.131828094482422, 0.582544028759003, -0.621819913387299, 0.523433446884155
-0.557065063476562, -0.0716526031494141, 0.234244018554687, 0.740019202232361, -0.672215819358826, 0.0223039872944355
-0.415063842773437, 0.0453366203308105, 0.203676788330078, 0.561216175556183, -0.826542913913727, 0.0431658588349819
-0.0332861671447754, -0.0193496074676514, -0.8091435546875, 0.583484768867493, 0.530820608139038, 0.614634096622467
-0.0777062683105469, -0.0165550270080566, -0.694013427734375, 0.842275500297546, 0.53820925951004, -0.0300478264689445
-0.0710659484863281, -0.0186006851196289, -0.525340759277344, 0.927513360977173, 0.373711287975311, 0.00767007982358336
-0.0630630264282227, -0.0354220390319824, -0.457606811523438, 0.748824715614319, 0.660476982593536, 0.0550614222884178
-0.0905861358642578, 0.0267042026519775, -0.430519409179688, 0.993131399154663, 0.110382542014122, 0.0388046242296696
0.0737747039794922, 0.0726503448486328, -0.859224975585937, 0.1192696839571, -0.0286164022982121, 0.992449462413788
0.00596871757507324, 0.18145849609375, -0.819196716308594, 0.336965918540955, -0.327177077531815, 0.882841527462006
0.111441627502441, 0.0561228408813477, -0.861954467773438, 0.051134280860424, -0.0287844315171242, 0.998276889324188
0.189906524658203, 0.0158344612121582, -0.859570556640625, -0.012178085744381, 0.0902863815426826, 0.995841383934021
0.267560852050781, 0.0600902214050293, -0.851093505859375, -0.44643622636795, 0.305828899145126, 0.840930104255676
0.310903442382812, 0.168690490722656, -0.830234924316406, -0.36366018652916, -0.16796101629734, 0.916264355182648
0.105567581176758, -0.113908996582031, -0.756283996582031, -0.137502491474152, 0.986691057682037, 0.0867976695299149
0.0335270614624023, -0.110329643249512, -0.6044013671875, 0.274615913629532, 0.959334850311279, -0.0652901381254196
0.0106221389770508, -0.0974837036132813, -0.494849884033203, 0.553559303283691, 0.832312762737274, -0.0287694483995438
0.026451473236084, -0.105640563964844, -0.451073364257813, 0.241165935993195, 0.970349729061127, 0.0161367189139128
0.21617073059082, -0.0785009460449219, -0.698160339355469, -0.453936725854874, 0.888692140579224, 0.0645579025149345
0.281094116210937, -0.0286108932495117, -0.739761596679688, -0.573203384876251, 0.811106026172638, 0.116382442414761
0.336661590576172, 0.0217911949157715, -0.703380065917969, -0.787745893001556, 0.599613070487976, 0.14114060997963
0.192929809570312, -0.086053337097168, -0.480611511230469, -0.477031826972961, 0.878110110759735, -0.036923311650753
0.252062850952148, -0.0528816413879395, -0.582772583007813, -0.614361107349396, 0.785741806030273, -0.0719049051403999
-0.159154220581055, -0.400141021728516, 0.0902762145996094, -0.330662220716476, 0.716218113899231, 0.61456823348999
-0.120046058654785, -0.387628143310547, 0.103484893798828, -0.439211130142212, 0.841153502464294, 0.315522432327271
-0.155733139038086, -0.425705810546875, 0.330251037597656, -0.490429490804672, 0.86189728975296, -0.128887549042702
-0.0647326736450195, -0.381397491455078, 0.187502990722656, -0.451959878206253, 0.890989661216736, 0.0432397834956646
-0.0871121444702148, -0.334439575195312, 0.0612650489807129, -0.352598756551743, 0.672186672687531, 0.651029407978058
-0.0202147026062012, -0.352322296142578, 0.138105316162109, -0.360888421535492, 0.856278836727142, 0.36952143907547
-0.0958996429443359, -0.0369168167114258, -0.352390014648437, 0.923217535018921, 0.289550334215164, 0.252646237611771
-0.0779786529541016, 0.113777412414551, -0.401163177490234, 0.913281559944153, -0.407295048236847, -0.0052497717551887
-0.210908203125, -0.167954986572266, -0.0191752796173096, 0.222626373171806, 0.165354400873184, 0.960778534412384
-0.318538970947266, 0.126913566589355, 0.271175720214844, 0.619227707386017, -0.761138081550598, -0.192940041422844
-0.283451385498047, 0.165855377197266, 0.177511749267578, 0.59186464548111, -0.78512305021286, 0.182422965764999
0.0517199668884277, -0.267103515625, 0.0493666305541992, -0.205180063843727, 0.667049527168274, 0.716202557086945
0.0249257736206055, -0.208185852050781, -0.00958326816558838, -0.193139046430588, 0.609299957752228, 0.769058465957642
0.127996513366699, -0.277242248535156, 0.112370880126953, -0.413349092006683, 0.836590111255646, 0.359526872634888
0.0440120277404785, -0.32957666015625, 0.172046234130859, -0.415587693452835, 0.907429933547974, 0.0621112585067749
0.0458079605102539, -0.330024017333984, 0.19059831237793, -0.415587693452835, 0.907429933547974, 0.0621112585067749
0.0557958145141602, -0.323663513183594, 0.164502029418945, -0.415587693452835, 0.907429933547974, 0.0621112585067749
0.14990641784668, -0.254355514526367, 0.327820556640625, -0.467767149209976, 0.818544030189514, -0.333436191082001
0.223202209472656, -0.236940002441406, 0.156593811035156, -0.623739302158356, 0.777580201625824, 0.0794882774353027
0.220164688110352, -0.236398864746094, 0.262594665527344, -0.503852546215057, 0.853813290596008, -0.130902916193008
0.0918422546386719, -0.113369651794434, -0.428173004150391, -0.10400815308094, 0.994073152542114, -0.0316381119191647
0.133333038330078, -0.098946403503418, -0.168162734985352, -0.270576328039169, 0.961910605430603, -0.0389425009489059
0.345019775390625, 0.0408877639770508, -0.147676574707031, -0.786290645599365, 0.606131911277771, -0.119796097278595
-0.606177673339844, -0.202767517089844, 0.3711279296875, 0.902595818042755, -0.151600122451782, -0.402912110090256
-0.55078466796875, -0.306283752441406, 0.434456481933594, 0.583367943763733, 0.216170966625214, -0.78291255235672
-0.419721618652344, -0.292692443847656, 0.516886413574219, 0.391637444496155, 0.373944491147995, -0.840705513954163
-0.269451232910156, -0.449916168212891, 0.437427429199219, -0.211359694600105, 0.801818668842316, -0.55894011259079
-0.335000915527344, -0.293431640625, 0.539061645507813, 0.0893869698047638, 0.312552571296692, -0.94568544626236
-0.246086120605469, -0.2156552734375, 0.564367553710937, -0.0409986823797226, 0.18975293636322, -0.98097550868988
-0.129020568847656, -0.214515533447266, 0.539268615722656, -0.282514750957489, 0.498732507228851, -0.819421291351318
-0.319599304199219, -0.0585995445251465, 0.523025573730469, 0.312338650226593, -0.517954289913177, -0.796346664428711
-0.272778289794922, -0.168283935546875, 0.56718505859375, 0.119144514203072, 0.0357310697436333, -0.99223381280899
-0.385822265625, 0.0475944671630859, 0.397045745849609, 0.569354474544525, -0.792045712471008, -0.22022520005703
-0.323237274169922, 0.0932342758178711, 0.385953247070312, 0.513203024864197, -0.748515963554382, -0.41993647813797
-0.132961624145508, -0.129534225463867, 0.545178771972656, -0.276403248310089, -0.0641687214374542, -0.958897113800049
-0.130169174194336, 0.175966827392578, 0.439502990722656, 0.426596462726593, -0.607096135616302, -0.67041015625
0.0783717651367187, -0.245827789306641, 0.424873901367188, -0.514267921447754, 0.593599379062653, -0.619005858898163
0.186908172607422, -0.182131866455078, 0.404394775390625, -0.538525223731995, 0.62043571472168, -0.570131599903107
-0.00720644855499268, 0.166221603393555, 0.496438751220703, 0.313660591840744, -0.421307921409607, -0.850950479507446
0.251295623779297, -0.139890701293945, 0.408119079589844, -0.529716074466705, 0.573191523551941, -0.625181972980499
0.253192993164063, 0.0143927154541016, 0.512687561035156, -0.266608446836472, 0.461246132850647, -0.846269488334656
0.325557739257813, -0.0994293441772461, 0.392601348876953, -0.453514754772186, 0.711910843849182, -0.536197066307068
0.155690582275391, 0.326698791503906, -0.452559265136719, 0.450488686561584, -0.891258299350739, 0.0521401055157185
0.246284591674805, 0.329184997558594, -0.71540185546875, 0.141493394970894, -0.938439130783081, 0.315137594938278
0.325401245117187, 0.230756805419922, -0.809149719238281, -0.470144182443619, -0.245435401797295, 0.84777706861496
0.321176086425781, 0.302163665771484, -0.736507141113281, -0.533133089542389, -0.81865394115448, 0.213482886552811
0.27161865234375, 0.332579559326172, -0.6668017578125, 0.0109362145885825, -0.998262107372284, 0.0579063519835472
0.270552001953125, 0.339550384521484, -0.537146423339844, -0.266123294830322, -0.962962865829468, 0.0433699488639832
0.274125, 0.338062316894531, -0.548261962890625, -0.266123294830322, -0.962962865829468, 0.0433699488639832
-0.0586404609680176, 0.309851806640625, 0.0798387756347656, 0.422159075737, -0.716288983821869, 0.555618464946747
-0.0708766555786133, 0.342979553222656, 0.261400909423828, 0.58366733789444, -0.808001041412354, -0.0804166793823242
0.0293502883911133, 0.248084655761719, -0.396159118652344, 0.5678870677948, -0.810077965259552, -0.145870134234428
0.00310657024383545, 0.220578918457031, -0.175700531005859, 0.740534901618958, -0.671820402145386, 0.0162916500121355
0.0577292518615723, 0.266648956298828, -0.145796661376953, 0.587030827999115, -0.808439314365387, -0.0426700673997402
0.205524948120117, 0.333937286376953, -0.273189697265625, 0.003754350123927, -0.998563706874847, 0.0534459128975868
0.255069396972656, 0.321717651367187, -0.177779251098633, -0.306470602750778, -0.943734705448151, -0.124260112643242
0.209781112670898, 0.318191680908203, -0.121052261352539, -0.0404829792678356, -0.992262899875641, -0.117369100451469
0.266140075683594, 0.311278106689453, -0.136553863525391, -0.248361513018608, -0.944140791893005, -0.216598138213158
-0.00830748653411865, 0.269147155761719, -0.00682971668243408, 0.444452345371246, -0.685537338256836, 0.576628744602203
0.163891128540039, 0.403986236572266, 0.144807739257813, -0.0502769611775875, -0.905368864536285, 0.421639114618301
0.262353485107422, 0.345345092773438, 0.0767654113769531, -0.342079669237137, -0.826431512832642, 0.447205245494843
0.318586334228516, 0.391321105957031, 0.287440490722656, -0.667070269584656, -0.739387989044189, 0.0912291258573532
-0.00498852586746216, 0.232777557373047, 0.464372131347656, 0.370636284351349, -0.482201427221298, -0.793795049190521
0.166096725463867, 0.284602874755859, 0.497419281005859, 0.0755236521363258, -0.484415769577026, -0.871571898460388
0.124736000061035, 0.372987335205078, 0.413682189941406, 0.299600660800934, -0.735508620738983, -0.607673048973083
0.379800659179688, 0.0615373611450195, -0.454642272949219, -0.881111681461334, 0.468481302261353, -0.0645560175180435
0.414956268310547, 0.172331756591797, -0.57444140625, -0.997716248035431, -0.0625491440296173, 0.0254924800246954
0.384842926025391, 0.0912583465576172, -0.298580444335938, -0.853675723075867, 0.517647802829742, -0.0572589188814163
0.409233032226562, 0.0719490356445313, 0.0715445175170898, -0.903975546360016, 0.138434514403343, 0.404554218053818
0.467766723632813, 0.168094268798828, 0.217580139160156, -0.904044628143311, -0.307164579629898, 0.297242969274521
0.397881683349609, 0.227457321166992, -0.366517547607422, -0.917078912258148, -0.397779732942581, -0.0271594673395157