-0.565304870605469, -0.0169854927062988, -0.0185360088348389, 0.823380768299103, 0.565408527851105, -0.0485521741211414
-0.233173156738281, -0.293227172851563, -0.161026885986328, 0.400622814893723, 0.720872342586517, 0.565547943115234
-0.357734954833984, -0.136736877441406, -0.209399749755859, 0.537937939167023, 0.63201367855072, 0.557836472988129
-0.0571002006530762, -0.406203369140625, -0.204869827270508, 0.450341999530792, 0.657548129558563, 0.604005455970764
0.00779884052276611, -0.426479797363281, -0.234879425048828, 0.286674648523331, 0.630518436431885, 0.721293449401855
0.0797553939819336, -0.499969146728516, -0.188693817138672, 0.295260936021805, 0.681498527526855, 0.669612348079681
0.0143722133636475, -0.541469360351562, -0.0370431327819824, 0.500657558441162, 0.860740602016449, 0.0920198634266853
-0.0434195098876953, -0.361462585449219, -0.263776885986328, 0.450341999530792, 0.657548129558563, 0.604005455970764
0.0580836219787598, -0.223218307495117, -0.348109619140625, 0.0383555330336094, 0.367469280958176, 0.92924439907074
0.0207071914672852, -0.131224700927734, -0.356565063476563, -0.0897963494062424, 0.140777722001076, 0.985960602760315
0.150311508178711, -0.0439851188659668, -0.357217620849609, -0.0897963494062424, 0.140777722001076, 0.985960602760315
-0.413148315429687, -0.0398529167175293, 0.264000396728516, 0.581166923046112, 0.423369139432907, -0.694984614849091
-0.251143035888672, -0.304063903808594, 0.0619806060791016, 0.683767914772034, 0.727516114711761, -0.0564082376658916
-0.208784729003906, -0.351698852539063, -0.00409153938293457, 0.690046548843384, 0.72258448600769, 0.0413205437362194
-0.257440032958984, -0.276689331054688, 0.140677932739258, 0.640196621417999, 0.718361973762512, -0.272221267223358
-0.317629364013672, -0.207351593017578, 0.186141998291016, 0.568560659885406, 0.728394865989685, -0.38233470916748
-0.256516571044922, -0.111918563842773, 0.310021850585938, 0.287286847829819, 0.404914677143097, -0.868049740791321
0.148657257080078, -0.561020690917969, 0.162848266601563, 0.200526773929596, 0.851097881793976, -0.485202431678772
-0.0674104156494141, -0.345616271972656, 0.288532318115234, 0.491393029689789, 0.508068025112152, -0.7073894739151
-0.0909303436279297, -0.13621061706543, 0.348565063476563, 0.259660720825195, -0.0119039146229625, -0.96562659740448
0.0356487655639648, -0.322444274902344, 0.339440399169922, 0.198456346988678, 0.279918819665909, -0.939287304878235
0.175650161743164, -0.353138793945313, 0.315112823486328, -0.430853575468063, -0.0190928801894188, -0.902219891548157
0.133201049804687, -0.167930786132813, 0.351849151611328, -0.257061570882797, 0.377200216054916, -0.889741182327271
0.038596248626709, -0.101713317871094, 0.38249560546875, 0.156945317983627, -0.0561577081680298, -0.986009418964386
-0.641331237792969, 0.263959197998047, -0.0295802879333496, 0.957779705524445, -0.272366046905518, 0.0920586213469505
-0.632462646484375, 0.239352813720703, 0.103803077697754, 0.866164207458496, -0.327724516391754, -0.377301335334778
-0.591588134765625, 0.235367950439453, 0.156621185302734, 0.679295539855957, -0.386608362197876, -0.623772025108337
-0.392975708007813, 0.177609024047852, -0.289368377685547, 0.326695650815964, 0.00105888838879764, 0.945129036903381
-0.564585205078125, 0.104218811035156, -0.175396209716797, 0.589403212070465, 0.331776767969131, 0.736565053462982
-0.458005340576172, 0.230266342163086, -0.266949035644531, 0.326695650815964, 0.00105888838879764, 0.945129036903381
-0.493888732910156, 0.484019805908203, -0.042144287109375, 0.73452091217041, -0.655227422714233, 0.176510751247406
-0.241276168823242, 0.539209289550781, -0.178337371826172, 0.0987353026866913, -0.671421706676483, 0.734468698501587
-0.322919891357422, 0.600015258789062, -0.0557215957641602, 0.259530603885651, -0.904493808746338, 0.338429898023605
-0.118790588378906, 0.0300633316040039, -0.359842315673828, 0.138404130935669, -0.133818075060844, 0.981293559074402
-0.0815978775024414, -0.0042039008140564, -0.367071350097656, 0.138284996151924, 0.139990746974945, 0.980448842048645
-0.035302604675293, 0.0182129039764404, -0.373233673095703, 0.138404130935669, -0.133818075060844, 0.981293559074402
-0.00322084856033325, 0.249939208984375, -0.337415985107422, -0.253818333148956, -0.417403548955917, 0.872554063796997
-0.0269782524108887, 0.361979156494141, -0.288233917236328, -0.13862256705761, -0.427369147539139, 0.893386483192444
0.139436767578125, 0.273378601074219, -0.280328674316406, -0.289321482181549, -0.387661278247833, 0.875221073627472
0.144795455932617, 0.273280029296875, -0.278600891113281, -0.289321482181549, -0.387661278247833, 0.875221073627472
-0.133988906860352, 0.434633941650391, -0.267821441650391, 7.34275454306044e-05, -0.351749360561371, 0.936094224452972
-0.176268264770508, 0.547142944335937, -0.171223892211914, -0.00774708157405257, -0.675534069538116, 0.737288117408752
-0.0343324928283691, 0.529677917480469, -0.139327102661133, -0.39684197306633, -0.839809358119965, 0.370454668998718
-0.161879211425781, 0.611130493164063, -0.0428842620849609, -0.217025384306908, -0.934004485607147, 0.283788055181503
0.0682999954223633, 0.402958618164062, -0.212093872070312, -0.413409918546677, -0.679851472377777, 0.605717897415161
0.125457092285156, 0.448489440917969, -0.0214361000061035, -0.684913754463196, -0.728355646133423, 0.0197816230356693
-0.502148132324219, 0.00224726915359497, 0.197971160888672, 0.712636411190033, 0.482360780239105, -0.509389340877533
-0.443239318847656, 0.209542770385742, 0.249430038452148, 0.219613417983055, -0.449331551790237, -0.865951001644135
-0.314439514160156, 0.258894500732422, 0.269892425537109, 0.272914886474609, -0.327440708875656, -0.90459942817688
-0.345734954833984, 0.297226989746094, 0.242027679443359, 0.38213849067688, -0.149751409888268, -0.911890745162964
-0.433572662353516, 0.5309013671875, 0.0484104385375977, 0.677009344100952, -0.69260847568512, -0.248901352286339
-0.283509002685547, 0.617467651367188, 0.0479230880737305, 0.0608613304793835, -0.990031778812408, -0.127015709877014
-0.2288125, 0.604209289550781, 0.106759338378906, -0.128643348813057, -0.933898866176605, -0.33359232544899
-0.0682234420776367, 0.0607550239562988, 0.3510927734375, 0.00383379473350942, 0.150646552443504, -0.988580226898193
-0.0630583877563477, 0.0675877685546875, 0.352162445068359, 0.0691856816411018, 0.129842475056648, -0.989117920398712
-0.0661949996948242, 0.112633239746094, 0.357934112548828, 0.00384506932459772, 0.130153372883797, -0.991486430168152
0.00434794616699219, 0.1685341796875, 0.36559765625, 0.211910203099251, 0.074244886636734, -0.974464893341064
-0.183278396606445, 0.302837738037109, 0.297958312988281, 0.294230163097382, -0.328969985246658, -0.89733350276947
0.198322875976563, 0.237902267456055, 0.302874450683594, -0.553553819656372, -0.586737155914307, -0.591031074523926
0.101860992431641, 0.051988826751709, 0.368832946777344, -0.00977179314941168, 0.0258772261440754, -0.999617397785187
0.045544261932373, 0.128585067749023, 0.371512603759766, 0.211910203099251, 0.074244886636734, -0.974464893341064
0.117410308837891, 0.200525207519531, 0.374529541015625, -0.359158992767334, -0.154476940631866, -0.920403063297272
-0.181024368286133, 0.57542529296875, 0.156305923461914, 0.00473280111327767, -0.873741805553436, -0.486367076635361
-0.0640578231811523, 0.5832568359375, 0.00324560451507568, -0.430212140083313, -0.899610042572021, 0.0749625414609909
0.14599446105957, 0.3973701171875, 0.151436401367188, -0.655153274536133, -0.71336168050766, -0.248775511980057
0.307938415527344, -0.424492523193359, -0.267954772949219, -0.120587177574635, 0.346685975790024, 0.930197656154633
0.375712249755859, -0.541293334960937, -0.130166458129883, -0.401588201522827, 0.829899907112122, 0.38728940486908
0.220395416259766, -0.319336486816406, -0.317629241943359, -0.0622176006436348, 0.357390135526657, 0.931880533695221
0.251423065185547, -0.16834504699707, -0.342515563964844, -0.374730914831161, 0.00967064686119556, 0.927083194255829
0.481722686767578, -0.231637390136719, -0.262068786621094, -0.581607043743134, 0.247061148285866, 0.775044620037079
0.510010375976563, -0.302281799316406, -0.213526641845703, -0.608162760734558, 0.308992087841034, 0.731205821037292
0.573883239746094, -0.361475524902344, -0.0660252532958984, -0.841409265995026, 0.525137484073639, 0.127519354224205
0.606040283203125, -0.11395378112793, -0.133330062866211, -0.866575539112091, -0.193960472941399, 0.459811061620712
0.618106689453125, -0.122715232849121, -0.11257349395752, -0.916669368743896, -0.213961094617844, 0.337547123432159
0.206776473999023, -0.608546630859375, 0.0287818508148193, 0.11061867326498, 0.990622401237488, -0.0801925137639046
0.243477478027344, -0.524661560058594, 0.19701252746582, -0.289332866668701, 0.681088387966156, -0.672610759735107
0.311762390136719, -0.421984130859375, 0.217829559326172, -0.59960401058197, 0.323593348264694, -0.731957972049713
0.423904937744141, -0.472891845703125, 0.0898254928588867, -0.61084395647049, 0.566315352916718, -0.553314208984375
0.405295379638672, -0.448494018554688, 0.130784271240234, -0.582560837268829, 0.464222252368927, -0.667173683643341
0.415525329589844, -0.406956909179688, 0.151946716308594, -0.509047865867615, 0.435531854629517, -0.742416560649872
0.460148376464844, -0.411078704833984, 0.110409652709961, -0.591409146785736, 0.534589827060699, -0.60369610786438
0.480559234619141, -0.400405364990234, 0.0998657836914063, -0.591409146785736, 0.534589827060699, -0.60369610786438
0.536107604980469, -0.406968811035156, 0.00639044046401978, -0.739695191383362, 0.639485359191895, -0.209545850753784
0.270608367919922, -0.336825469970703, 0.274565124511719, -0.512457311153412, 0.184428796172142, -0.838673651218414
0.261886688232422, -0.324857666015625, 0.278817321777344, -0.307850301265717, 0.160280987620354, -0.93783700466156
0.268645935058594, -0.282657928466797, 0.283810729980469, -0.307850301265717, 0.160280987620354, -0.93783700466156
0.315086975097656, -0.204814727783203, 0.284548950195313, -0.307087332010269, 0.305643081665039, -0.901265561580658
0.514682983398438, -0.368110717773438, 0.0960618438720703, -0.623536288738251, 0.570546209812164, -0.534489989280701
0.416729522705078, -0.153869903564453, 0.266897064208984, -0.21880841255188, 0.244665235280991, -0.944596111774445
0.505292022705078, -0.0967850494384766, 0.242629943847656, -0.433849632740021, -0.0148361464962363, -0.900863230228424
0.637261779785156, -0.210184875488281, 0.0423686256408691, -0.977742075920105, 0.0623931549489498, -0.200318515300751
0.287235412597656, 0.0328363533020019, -0.319029479980469, -0.381655186414719, -0.281649678945541, 0.880348086357117
0.363223693847656, 0.167568237304688, -0.197220703125, -0.581264674663544, -0.592728674411774, 0.557498216629028
0.203232223510742, 0.369695190429688, -0.0755210647583008, -0.682121813297272, -0.723794102668762, 0.104076445102692
0.453672393798828, 0.12968620300293, -0.12812043762207, -0.676075458526611, -0.677348077297211, 0.290037244558334
0.305384674072266, 0.272657653808594, 0.0614419097900391, -0.624020278453827, -0.770974099636078, -0.127270355820656
0.358240081787109, 0.228938522338867, 0.0708497161865234, -0.622913539409637, -0.774195969104767, -0.112247154116631
0.433168579101562, 0.129351196289062, 0.160385879516602, -0.650303959846497, -0.680852770805359, -0.336963206529617
0.561337951660156, 0.0386511688232422, 0.00275792670249939, -0.84270441532135, -0.533622980117798, 0.0713851302862167
0.451476684570312, 0.0557643737792969, 0.229776641845703, -0.691482782363892, -0.516200542449951, -0.505359947681427