-0.405468322753906, -0.272374450683594, -0.0660173721313477, 0.811749875545502, 0.561040282249451, 0.162160232663155
-0.414443756103516, -0.259532531738281, -0.0655180206298828, 0.811749875545502, 0.561040282249451, 0.162160232663155
-0.467401489257812, -0.134679748535156, -0.137388488769531, 0.901954591274261, 0.369450032711029, 0.223572269082069
-0.425643737792969, -0.0391758918762207, -0.316406616210938, 0.8463054895401, 0.173849299550056, 0.503531038761139
-0.447072723388672, -0.048653621673584, -0.270226959228516, 0.908337891101837, 0.153031468391418, 0.389234870672226
-0.509622955322266, 0.0059882698059082, -0.0837521743774414, 0.995140075683594, 0.0550909452140331, 0.081616647541523
-0.460778900146484, -0.0637140960693359, -0.229314270019531, 0.923755884170532, 0.148049801588058, 0.353208690881729
-0.461171264648437, -0.00275454378128052, -0.245830932617187, 0.933203756809235, 0.0527559369802475, 0.355454087257385
-0.239438537597656, -0.312016632080078, -0.358634033203125, 0.582206010818481, 0.65975022315979, 0.47514820098877
-0.0881253890991211, -0.242844970703125, -0.460397186279297, 0.0158460512757301, 0.181194752454758, 0.983319580554962
-0.132911483764648, -0.0626473579406738, -0.473551513671875, 0.00849541276693344, -0.0162573158740997, 0.999831795692444
-0.367766662597656, -0.148011688232422, -0.357584075927734, 0.725235641002655, 0.308963865041733, 0.615284264087677
-0.274753112792969, -0.228848571777344, -0.400601684570312, 0.498039960861206, 0.348328083753586, 0.794118285179138
-0.270981018066406, -0.240172378540039, -0.396847961425781, 0.605557024478912, 0.486811459064484, 0.629535794258118
-0.366887329101563, 0.00148267889022827, -0.396051239013672, 0.647594571113586, 0.000948439468629658, 0.761984527111053
-0.391739959716797, 0.0309253692626953, -0.365471160888672, 0.795576333999634, -0.158328995108604, 0.584799408912659
-0.384762634277344, 0.0452812309265137, -0.371076599121094, 0.795576333999634, -0.158328995108604, 0.584799408912659
-0.351845672607422, 0.0523679046630859, -0.402295349121094, 0.556408584117889, -0.122595652937889, 0.821814954280853
-0.484622314453125, -0.0963735046386719, 0.101229248046875, 0.961100399494171, 0.225770339369774, -0.159103259444237
-0.418282592773437, -0.223257232666016, 0.183397506713867, 0.793589413166046, 0.50985312461853, -0.332062780857086
-0.461194732666016, -0.0862041091918945, 0.212420013427734, 0.889555633068085, 0.199908807873726, -0.410764187574387
-0.506962829589844, 0.0552702598571777, 0.0170314121246338, 0.975434422492981, -0.213492229580879, -0.0543019324541092
-0.500481414794922, 0.0204558849334717, 0.0839324722290039, 0.987125873565674, -0.0604478009045124, -0.148083209991455
-0.438005889892578, -0.060446044921875, 0.254623641967773, 0.772790312767029, 0.0117745669558644, -0.634552240371704
-0.476497711181641, 0.0357642593383789, 0.193294158935547, 0.947043895721436, -0.0869250074028969, -0.309114694595337
-0.419553009033203, 0.0438175849914551, 0.271901763916016, 0.658996820449829, -0.0470679774880409, -0.750671625137329
-0.420119934082031, 0.0839133377075195, 0.262403137207031, 0.594887912273407, -0.231645345687866, -0.769707024097443
-0.383458465576172, -0.30314013671875, 0.0835036468505859, 0.742049157619476, 0.665447175502777, -0.080889604985714
-0.230495208740234, -0.423682250976562, 0.140661560058594, 0.467767953872681, 0.866716980934143, -0.173190280795097
-0.0276606502532959, -0.484457427978516, 0.135727416992187, 0.0153677575290203, 0.93659245967865, -0.350083559751511
-0.0519910697937012, -0.453154846191406, 0.211320587158203, 0.098789781332016, 0.844074249267578, -0.527047634124756
-0.381955780029297, -0.252644882202148, 0.223515701293945, 0.767657935619354, 0.531467080116272, -0.35811185836792
-0.3387578125, -0.225017364501953, 0.304895202636719, 0.527220368385315, 0.239623874425888, -0.815241813659668
-0.332362518310547, -0.212206329345703, 0.312796600341797, 0.527220368385315, 0.239623874425888, -0.815241813659668
-0.266258575439453, 0.0129502744674683, 0.352234252929688, 0.345270663499832, -0.19577993452549, -0.917855381965637
-0.0991220779418945, -0.225221435546875, 0.397301666259766, 0.0157356448471546, 0.215086698532104, -0.976468205451965
-0.186083206176758, 0.0127576370239258, 0.376242462158203, 0.175844147801399, -0.102694652974606, -0.979046821594238
-0.462062103271484, 0.147476776123047, -0.166592071533203, 0.918900609016418, -0.323387891054153, 0.225924775004387
-0.267508331298828, 0.28249072265625, -0.370340026855469, 0.543137669563293, -0.558439433574677, 0.627014219760895
-0.301671447753906, 0.395093139648438, -0.0810525665283203, 0.6146160364151, -0.787789165973663, 0.0404391102492809
-0.22108203125, 0.428968811035156, -0.177381683349609, 0.531629621982574, -0.802851140499115, 0.269814938306808
-0.134060180664063, 0.387949523925781, -0.344023712158203, 0.323104321956635, -0.819522321224213, 0.473272502422333
-0.109278587341309, 0.417435516357422, -0.306549011230469, 0.263598531484604, -0.835342824459076, 0.482408791780472
-0.195719467163086, 0.420916900634766, -0.227248657226563, 0.42381340265274, -0.821395039558411, 0.381696760654449
-0.391970977783203, 0.166452987670898, 0.264514801025391, 0.735813677310944, -0.29730036854744, -0.608433067798615
-0.374431030273437, 0.282364471435547, 0.167872863769531, 0.71809458732605, -0.598377346992493, -0.355365693569183
-0.261191253662109, 0.405430816650391, 0.117051155090332, 0.599843204021454, -0.772019147872925, -0.210177600383759
-0.157080780029297, 0.478152770996094, 0.0277395362854004, 0.384004443883896, -0.919349312782288, -0.0856588110327721
-0.269751586914062, 0.1889501953125, 0.338373809814453, 0.339608311653137, -0.146413862705231, -0.929101288318634
-0.280304870605469, 0.219226333618164, 0.328688323974609, 0.362015664577484, -0.171945855021477, -0.916176438331604
0.121840103149414, -0.470630065917969, -0.15680810546875, -0.165141269564629, 0.968436419963837, 0.186706468462944
0.0789280242919922, -0.492745788574219, -0.0741107025146484, -0.137285843491554, 0.986729204654694, 0.086707316339016
0.0185483474731445, -0.367452941894531, -0.403522033691406, 0.011283035390079, 0.601689338684082, 0.798650503158569
0.167490417480469, -0.0232878570556641, -0.473950805664063, -0.139355078339577, 0.0281278118491173, 0.98984295129776
0.147142303466797, 0.0477324562072754, -0.475305847167969, 0.0106193982064724, 0.00615240959450603, 0.999924719333649
0.177836044311523, -0.100612686157227, -0.468346069335937, -0.158965349197388, 0.0931617617607117, 0.982878923416138
0.2625087890625, -0.101711654663086, -0.452409210205078, -0.293713182210922, 0.101922780275345, 0.950444281101227
0.247329849243164, -0.189898391723633, -0.443795257568359, -0.2446219176054, 0.220690026879311, 0.944169521331787
0.279897064208984, -0.143006759643555, -0.442607360839844, -0.293713182210922, 0.101922780275345, 0.950444281101227
0.412831909179687, -0.167907196044922, -0.315672729492187, -0.848157465457916, 0.366549223661423, 0.382453382015228
0.423979309082031, -0.156079833984375, -0.299618041992188, -0.906232476234436, 0.318362712860107, 0.278186917304993
0.452455322265625, -0.157037704467773, -0.182634643554688, -0.939333021640778, 0.290096819400787, 0.183022737503052
0.45500830078125, -0.116712585449219, -0.23546826171875, -0.95672881603241, 0.206314384937286, 0.205193355679512
0.459680572509766, -0.0914574279785156, -0.238560791015625, -0.96178936958313, 0.194161832332611, 0.193034872412682
0.377820922851562, -0.0701719512939453, -0.405148071289062, -0.533929586410522, 0.0786851570010185, 0.841859817504883
0.451052703857422, -0.0190172348022461, -0.303134826660156, -0.960369765758514, 0.0115336999297142, 0.278490424156189
0.494521667480469, 0.00730753660202026, -0.0828724212646484, -0.995904266834259, 0.0843044370412827, 0.0326715856790543
0.0689485092163086, -0.463051391601563, 0.173718139648437, -0.179311111569405, 0.845534563064575, -0.502910435199738
0.0558883056640625, -0.461113952636719, 0.181632034301758, -0.179311111569405, 0.845534563064575, -0.502910435199738
0.285927673339844, -0.396537353515625, 0.0621183319091797, -0.577657222747803, 0.798842012882233, -0.16782046854496
0.259337707519531, -0.284676330566406, 0.289205841064453, -0.569136440753937, 0.601381719112396, -0.560734987258911
0.0578053855895996, -0.326839141845703, 0.332862274169922, -0.195763885974884, 0.547953963279724, -0.813279092311859
0.358630096435547, -0.200299682617188, 0.242769744873047, -0.798110783100128, 0.29457089304924, -0.52559232711792
0.0487931671142578, 0.0481769561767578, 0.376818939208984, 0.119219392538071, 0.0171614196151495, -0.992719650268555
0.128337249755859, -0.0143307075500488, 0.399447692871094, 0.155828297138214, -0.0755836591124535, -0.984888195991516
0.291202606201172, -0.0898577575683594, 0.355404052734375, -0.414468586444855, 0.144630447030067, -0.898497521877289
0.383330871582031, -0.288531127929687, 0.0870071716308594, -0.780090987682343, 0.59108829498291, -0.205116540193558
0.485406677246094, -0.0850341339111328, -0.0156747379302979, -0.986066460609436, 0.166126072406769, 0.00866744667291641
0.453291442871094, -0.0889580535888672, 0.157513031005859, -0.926804006099701, 0.162947669625282, -0.338352382183075
0.492606201171875, -0.0198973579406738, -0.0191857051849365, -0.997672498226166, 0.0663360133767128, -0.0157854612916708
0.371744384765625, -0.0628946228027344, 0.310126861572266, -0.7717444896698, 0.0929346010088921, -0.629105448722839
0.0370328712463379, 0.148553619384766, -0.474577514648438, 0.00761639652773738, 0.00578636163845658, 0.999954283237457
0.133009552001953, 0.203731994628906, -0.467756713867187, -0.0562329404056072, -0.181904152035713, 0.981707096099854
0.194532333374023, 0.109079284667969, -0.470443969726562, -0.148044034838676, -0.0646244883537292, 0.986867070198059
-0.0149995822906494, 0.441151245117188, -0.297870727539063, 0.111088678240776, -0.903765380382538, 0.413361102342606
0.296331939697266, 0.15270735168457, -0.439800964355469, -0.376410990953445, -0.191900089383125, 0.906360387802124
0.332610992431641, 0.134855895996094, -0.423447570800781, -0.614872097969055, -0.231275230646133, 0.753952383995056
0.275452728271484, 0.404192016601563, -0.166744552612305, -0.585165441036224, -0.79890376329422, 0.139047652482986
0.404816467285156, 0.132654800415039, -0.349452514648438, -0.756157100200653, -0.252569377422333, 0.603684663772583
0.368435272216797, 0.216650466918945, -0.334574279785156, -0.781797826290131, -0.456539183855057, 0.42469310760498
0.469693603515625, 0.13890966796875, -0.122879676818848, -0.946977436542511, -0.314086675643921, 0.0677011162042618
0.153021881103516, 0.46361669921875, 0.127691467285156, -0.377098470926285, -0.902207970619202, -0.209326297044754
0.0348957595825195, 0.461202209472656, 0.219479507446289, -0.0979370251297951, -0.910788774490356, -0.401088744401932
0.247629241943359, 0.293900604248047, 0.304843017578125, -0.582736968994141, -0.555812180042267, -0.59286630153656
0.339833038330078, 0.230459167480469, 0.281377990722656, -0.757017910480499, -0.388536632061005, -0.525321841239929
0.305051727294922, 0.387386291503906, 0.00321022820472717, -0.682869791984558, -0.723685681819916, -0.0998392477631569
0.198035263061523, 0.359413940429687, 0.28257763671875, -0.433646678924561, -0.707001090049744, -0.558659136295319
0.452202850341797, 0.177184677124023, 0.0347211952209473, -0.940073251724243, -0.321437120437622, -0.113756433129311
0.465591735839844, 0.128721481323242, 0.0536147193908691, -0.955398321151733, -0.264533847570419, -0.131285831332207
0.368687896728516, 0.252286315917969, 0.197317047119141, -0.754554808139801, -0.554420232772827, -0.351091623306274